ply
format ascii 1.0
element vertex 1247
property float x
property float y
property float z
property uchar red
property uchar green
property uchar blue
end_header
-5.524421 1.102943 0.725000 255 100 0
-5.564855 1.130941 -0.075000 0 100 255
-5.616048 1.167732 -0.075000 0 100 255
-5.686038 1.219341 0.725000 255 100 0
-5.726327 1.251147 0.775000 255 100 0
-5.766827 1.278273 -0.075000 0 100 255
-5.847616 1.337206 0.675000 255 100 0
-5.928406 1.396139 -0.075000 0 100 255
-5.968750 1.426074 0.725000 255 100 0
-6.015449 1.459275 -0.125000 0 100 255
-6.009142 1.455544 0.825000 255 100 0
-1.132677 -2.040538 0.025000 0 100 255
-1.173069 -2.011067 -0.075000 0 100 255
-1.293950 -1.922643 0.125000 0 100 255
-1.375027 -1.863714 0.175000 0 100 255
-1.374739 -1.863710 0.425000 0 255 0
-1.415419 -1.834243 0.225000 0 255 0
-1.496202 -1.775302 0.025000 0 100 255
-1.495923 -1.775310 0.225000 0 255 0
-1.576713 -1.716378 -0.125000 0 100 255
-1.617107 -1.686911 -0.125000 0 100 255
-1.700047 -1.627770 0.025000 0 100 255
-1.778943 -1.569008 0.025000 0 100 255
-1.778943 -1.569008 0.625000 255 100 0
-1.819335 -1.539537 0.175000 0 100 255
-1.901257 -1.480397 0.075000 0 100 255
-1.980659 -1.421713 -0.125000 0 100 255
-2.021054 -1.392246 -0.125000 0 100 255
-2.021293 -1.392184 0.725000 255 100 0
-2.142238 -1.303847 -0.075000 0 100 255
-2.182632 -1.274381 -0.025000 0 100 255
-2.223027 -1.244914 -0.025000 0 100 255
-2.344211 -1.156515 -0.075000 0 100 255
-2.425000 -1.097582 0.025000 0 100 255
-2.586431 -0.979804 0.025000 0 100 255
-2.715109 -0.885963 0.025000 0 100 255
-2.788552 -0.832384 0.075000 0 100 255
-2.950909 -0.713832 -0.075000 0 100 255
-2.990525 -0.685051 -0.025000 0 100 255
-3.030920 -0.655585 -0.025000 0 100 255
-3.071475 -0.625948 -0.025000 0 100 255
-3.152104 -0.567185 -0.125000 0 100 255
-3.192499 -0.537719 -0.025000 0 100 255
-3.273287 -0.478786 -0.125000 0 100 255
-3.314513 -0.448245 -0.075000 0 100 255
-3.354022 -0.419923 -0.075000 0 100 255
-3.475209 -0.331527 -0.075000 0 100 255
-5.414220 1.082085 -0.075000 0 100 255
-5.494936 1.143725 0.625000 255 100 0
-5.535317 1.173210 0.775000 255 100 0
-5.575698 1.202695 0.625000 255 100 0
-5.737223 1.320635 0.775000 255 100 0
-5.979741 1.495426 -0.125000 0 100 255
-5.979634 1.496266 0.825000 255 100 0
-3.970958 0.092135 -0.125000 0 100 255
-4.012008 0.123612 -0.125000 0 100 255
-5.330063 1.083684 -0.025000 0 100 255
-5.425098 1.153491 -0.125000 0 100 255
-5.465506 1.182157 -0.075000 0 100 255
-5.546154 1.243230 0.625000 255 100 0
-5.546297 1.241087 0.775000 255 100 0
-5.586648 1.271449 0.625000 255 100 0
-5.586534 1.272717 0.825000 255 100 0
-5.626926 1.302807 0.675000 255 100 0
-5.667426 1.330397 0.675000 255 100 0
-5.667426 1.330397 0.825000 255 100 0
-5.788593 1.418820 -0.125000 0 100 255
-5.828698 1.450805 -0.125000 0 100 255
-5.828698 1.450805 0.775000 255 100 0
-5.869461 1.476810 -0.125000 0 100 255
-5.869370 1.477769 0.775000 255 100 0
-5.869461 1.476810 0.875000 255 100 0
-5.990647 1.565206 -0.075000 0 100 255
-6.111834 1.653602 -0.075000 0 100 255
-6.192617 1.712625 -0.125000 0 100 255
-1.073397 -1.959715 0.375000 0 255 0
-1.113791 -1.930248 0.025000 0 100 255
-1.154228 -1.900801 -0.125000 0 100 255
-1.194516 -1.871306 0.175000 0 100 255
-1.225593 -1.828416 -0.125000 0 100 255
-1.235018 -1.841868 0.325000 0 255 0
-1.275307 -1.812375 -0.125000 0 100 255
-1.275371 -1.812384 0.375000 0 255 0
-1.315766 -1.782918 0.125000 0 100 255
-1.477284 -1.665049 0.025000 0 100 255
-1.600499 -1.576542 0.025000 0 100 255
-1.679316 -1.517733 0.025000 0 100 255
-1.719711 -1.488268 0.025000 0 100 255
-1.921634 -1.340930 0.012500 0 100 255
-2.019485 -1.269595 -0.125000 0 100 255
-2.083216 -1.223069 -0.075000 0 100 255
-2.164007 -1.164138 -0.025000 0 100 255
-2.285193 -1.075742 -0.125000 0 100 255
-2.325589 -1.046277 0.025000 0 100 255
-2.423435 -0.974935 -0.125000 0 100 255
-2.568007 -0.869467 0.025000 0 100 255
-2.616410 -0.834139 -0.075000 0 100 255
-2.689223 -0.781072 0.025000 0 100 255
-2.770012 -0.722139 -0.125000 0 100 255
-2.810335 -0.692693 -0.075000 0 100 255
-2.850925 -0.663103 -0.025000 0 100 255
-2.931521 -0.604297 -0.125000 0 100 255
-3.012379 -0.545340 -0.025000 0 100 255
-3.093168 -0.486407 -0.125000 0 100 255
-3.133499 -0.456971 -0.125000 0 100 255
-3.173894 -0.427505 -0.125000 0 100 255
-3.214290 -0.398040 -0.025000 0 100 255
-3.295348 -0.338728 -0.125000 0 100 255
-3.335738 -0.309254 -0.025000 0 100 255
-3.417245 -0.249163 -0.125000 0 100 255
-3.456906 -0.220833 -0.025000 0 100 255
-3.537684 -0.161885 -0.125000 0 100 255
-3.578073 -0.132411 -0.025000 0 100 255
-3.658852 -0.073464 -0.125000 0 100 255
-3.780020 0.014958 -0.125000 0 100 255
-3.828215 0.018797 -0.125000 0 100 255
-3.860811 0.073966 -0.025000 0 100 255
-2.498875 -0.858129 -0.075000 0 100 255
-5.325719 1.205042 -0.125000 0 100 255
-5.487359 1.322369 0.625000 255 100 0
-5.568142 1.381310 0.625000 255 100 0
-5.568202 1.380623 0.775000 255 100 0
-5.627249 1.423633 0.675000 255 100 0
-5.689317 1.469721 -0.125000 0 100 255
-5.770116 1.528573 -0.125000 0 100 255
-5.810508 1.558043 -0.125000 0 100 255
-5.810583 1.557404 0.825000 255 100 0
-5.891276 1.617073 -0.125000 0 100 255
-1.500653 -1.525302 0.025000 0 100 255
-1.620879 -1.436918 0.025000 0 100 255
-1.782570 -1.319006 -0.075000 0 100 255
-1.822826 -1.289549 -0.125000 0 100 255
-2.145940 -1.053759 -0.125000 0 100 255
-2.509444 -0.788495 -0.075000 0 100 255
-2.671001 -0.670600 -0.075000 0 100 255
-2.832559 -0.552705 -0.125000 0 100 255
-2.872948 -0.523231 -0.125000 0 100 255
-2.994041 -0.434861 0.015000 0 100 255
-3.074895 -0.375862 -0.125000 0 100 255
-3.115284 -0.346389 -0.025000 0 100 255
-3.236452 -0.257967 -0.125000 0 100 255
-3.276841 -0.228494 -0.025000 0 100 255
-3.357620 -0.169546 -0.125000 0 100 255
-3.383970 -0.121708 -0.025000 0 100 255
-3.478788 -0.081125 -0.125000 0 100 255
-3.724332 0.091073 -0.125000 0 100 255
-3.761513 0.125192 -0.025000 0 100 255
-3.882681 0.213613 -0.025000 0 100 255
-4.125017 0.390456 -0.125000 0 100 255
-4.165406 0.419929 -0.025000 0 100 255
-4.230942 0.467440 -0.025000 0 100 255
-4.282956 0.513751 -0.125000 0 100 255
-4.367311 0.566981 -0.025000 0 100 255
-4.621816 0.727407 -0.075000 0 100 255
-4.650170 0.774605 -0.025000 0 100 255
-5.982969 1.745697 -0.075000 0 100 255
-5.428360 1.403525 -0.075000 0 100 255
-5.670655 1.580758 -0.125000 0 100 255
-6.034197 1.845634 -0.075000 0 100 255
-1.521770 -1.385595 0.675000 255 100 0
-2.432690 -0.720631 -0.125000 0 100 255
-2.491042 -0.678127 -0.125000 0 100 255
-2.652588 -0.560216 -0.125000 0 100 255
-2.692974 -0.530738 -0.075000 0 100 255
-4.181767 0.566476 -0.025000 0 100 255
-4.308337 0.647704 -0.125000 0 100 255
-5.560376 1.562081 -0.075000 0 100 255
-5.923947 1.826881 -0.025000 0 100 255
-6.004634 1.886324 -0.125000 0 100 255
-6.045118 1.915298 -0.125000 0 100 255
-0.886058 -1.787280 -0.075000 0 100 255
-0.967143 -1.728392 -0.015000 0 100 255
-1.027689 -1.684166 0.075000 0 100 255
-1.088304 -1.639962 0.675000 255 100 0
-1.128401 -1.610447 0.625000 255 100 0
-1.411402 -1.404149 0.175000 0 100 255
-1.532564 -1.315719 -0.125000 0 100 255
-1.653477 -1.227309 0.675000 255 100 0
-1.734258 -1.168364 0.075000 0 100 255
-1.855429 -1.079948 -0.075000 0 100 255
-1.976823 -0.991476 -0.075000 0 100 255
-2.017210 -0.961999 0.025000 0 100 255
-2.097985 -0.903046 -0.125000 0 100 255
-2.461286 -0.637865 0.425000 0 255 0
-2.542244 -0.578803 -0.025000 0 100 255
-2.663406 -0.490373 -0.125000 0 100 255
-3.188440 -0.107177 -0.025000 0 100 255
-4.177970 0.615327 -0.075000 0 100 255
-4.480922 0.837616 -0.025000 0 100 255
-4.828196 1.089048 -0.125000 0 100 255
-4.969259 1.183749 -0.125000 0 100 255
-5.086704 1.277644 -0.025000 0 100 255
-5.571264 1.632148 0.775000 255 100 0
-5.772827 1.781561 -0.025000 0 100 255
-5.935097 1.895748 -0.025000 0 100 255
-1.074221 -1.587687 0.075000 0 100 255
-3.522210 0.197816 -0.125000 0 100 255
-5.299487 1.495970 -0.125000 0 100 255
-5.339870 1.525452 -0.025000 0 100 255
-0.797744 -1.666144 -0.007143 0 100 255
-4.473166 1.017946 -0.125000 0 100 255
-4.971495 1.378061 -0.075000 0 100 255
-4.080336 0.792814 -0.075000 0 100 255
-1.732644 -0.827336 -0.125000 0 100 255
-1.727210 -0.819726 0.475000 0 255 0
-5.020076 1.539061 0.075000 0 100 255
-5.022665 1.619862 0.125000 0 100 255
-5.111948 1.666779 -0.125000 0 100 255
-5.158721 1.687255 0.125000 0 100 255
-5.273209 1.786281 0.075000 0 100 255
-5.313548 1.815967 0.125000 0 100 255
-5.394589 1.873721 0.275000 0 255 0
-5.475371 1.932664 0.008333 0 100 255
-5.515762 1.962135 0.075000 0 100 255
-5.515762 1.962135 0.625000 255 100 0
-5.596545 2.021078 0.075000 0 100 255
-0.639356 -1.534027 0.025000 0 100 255
-0.679747 -1.504556 0.075000 0 100 255
-0.770282 -1.438151 -0.125000 0 100 255
-0.778251 -1.432052 0.125000 0 100 255
-0.773601 -1.435701 0.275000 0 255 0
-0.761227 -1.445812 0.625000 255 100 0
-0.801609 -1.416329 -0.125000 0 100 255
-0.841992 -1.386846 0.125000 0 100 255
-0.841992 -1.386846 0.325000 0 255 0
-1.083658 -1.209843 -0.125000 0 100 255
-1.124049 -1.180371 0.025000 0 100 255
-1.204831 -1.121429 -0.125000 0 100 255
-1.407348 -0.974084 0.725000 255 100 0
-1.528496 -0.885634 0.125000 0 100 255
-1.568878 -0.856151 0.675000 255 100 0
-1.609261 -0.826668 0.425000 0 255 0
-1.608743 -0.826716 0.675000 255 100 0
-1.669395 -0.782508 0.475000 0 255 0
-1.787545 -0.733147 -0.125000 0 100 255
-1.810699 -0.679360 -0.075000 0 100 255
-2.013086 -0.531838 -0.075000 0 100 255
-2.295764 -0.325457 -0.075000 0 100 255
-2.457294 -0.207525 -0.075000 0 100 255
-2.497430 -0.178270 -0.025000 0 100 255
-2.578676 -0.118827 -0.025000 0 100 255
-2.982100 0.175418 -0.125000 0 100 255
-3.951434 0.882931 -0.025000 0 100 255
-5.001270 1.650751 0.075000 0 100 255
-5.163315 1.766008 0.125000 0 100 255
-5.324307 1.886612 -0.008333 0 100 255
-5.324307 1.886612 0.225000 0 255 0
-5.324982 1.883470 0.475000 0 255 0
-5.365217 1.913604 0.075000 0 100 255
-5.365135 1.913960 0.775000 255 100 0
-5.405278 1.944462 0.325000 0 255 0
-5.445691 1.973821 0.125000 0 100 255
-5.486048 2.003422 0.675000 255 100 0
-5.526433 2.032902 0.075000 0 100 255
-5.526462 2.032778 0.675000 255 100 0
-5.728390 2.180172 0.675000 255 100 0
-0.651494 -1.464550 0.425000 0 255 0
-0.691166 -1.434834 0.375000 0 255 0
-0.771936 -1.375874 0.275000 0 255 0
-0.812256 -1.346387 -0.125000 0 100 255
-0.812256 -1.346387 0.175000 0 100 255
-0.812321 -1.346394 0.325000 0 255 0
-0.973798 -1.228471 0.075000 0 100 255
-1.256497 -1.022119 0.025000 0 100 255
-1.337268 -0.963161 -0.125000 0 100 255
-1.337268 -0.963161 0.575000 0 255 0
-1.426087 -0.915739 0.675000 255 100 0
-1.498862 -0.845234 0.675000 255 100 0
-1.539196 -0.815767 0.625000 255 100 0
-1.579582 -0.786288 -0.125000 0 100 255
-1.579582 -0.786288 0.475000 0 255 0
-1.579582 -0.786288 0.675000 255 100 0
-1.637642 -0.781525 0.525000 0 255 0
-1.781555 -0.638874 -0.125000 0 100 255
-1.862281 -0.579936 -0.025000 0 100 255
-1.943052 -0.520978 -0.125000 0 100 255
-1.968561 -0.471360 -0.125000 0 100 255
-2.225751 -0.314626 -0.075000 0 100 255
-2.266172 -0.285114 -0.075000 0 100 255
-2.372449 -0.176616 -0.075000 0 100 255
-2.427711 -0.167194 -0.075000 0 100 255
-2.548836 -0.078795 -0.125000 0 100 255
-3.881595 0.895294 -0.075000 0 100 255
-5.133668 1.807322 0.225000 0 255 0
-5.214505 1.865890 -0.125000 0 100 255
-5.214407 1.866232 0.425000 0 255 0
-5.295356 1.924568 0.325000 0 255 0
-5.295365 1.924493 0.525000 0 255 0
-5.376145 1.983500 0.425000 0 255 0
-1.065079 -1.099559 -0.125000 0 100 255
-2.478655 -0.068201 -0.075000 0 100 255
-2.518903 -0.038881 -0.075000 0 100 255
-2.721022 0.108599 -0.125000 0 100 255
-2.761416 0.138065 -0.025000 0 100 255
-2.882600 0.226465 -0.025000 0 100 255
-2.963389 0.285399 -0.125000 0 100 255
-3.023918 0.329444 -0.125000 0 100 255
-3.084514 0.373638 -0.125000 0 100 255
-3.124911 0.403101 -0.025000 0 100 255
-3.327079 0.551263 -0.125000 0 100 255
-3.367295 0.579879 -0.125000 0 100 255
-3.488486 0.668267 -0.125000 0 100 255
-3.528883 0.697730 -0.025000 0 100 255
-3.613704 0.759459 -0.125000 0 100 255
-3.650096 0.786313 -0.025000 0 100 255
-3.730870 0.845045 -0.125000 0 100 255
-3.771266 0.874508 -0.025000 0 100 255
-3.852061 0.933434 -0.125000 0 100 255
-3.892429 0.963794 -0.075000 0 100 255
-3.932865 0.992912 -0.025000 0 100 255
-4.013647 1.051854 -0.125000 0 100 255
-4.054038 1.081326 -0.025000 0 100 255
-4.134820 1.140269 -0.125000 0 100 255
-4.175211 1.169740 -0.025000 0 100 255
-4.281703 1.277898 -0.025000 0 100 255
-4.336774 1.287626 -0.075000 0 100 255
-4.377138 1.317408 -0.075000 0 100 255
-4.538714 1.435162 -0.025000 0 100 255
-4.659882 1.523583 -0.025000 0 100 255
-4.721917 1.568136 -0.125000 0 100 255
-5.155080 1.948758 0.475000 0 255 0
-1.248053 -0.841916 0.475000 0 255 0
-4.874002 1.823421 0.010714 0 100 255
-4.964398 1.869796 -0.125000 0 100 255
-4.964447 1.869484 0.125000 0 100 255
-5.045275 1.928238 0.425000 0 255 0
-5.085667 1.957708 0.375000 0 255 0
-5.126008 1.987375 -0.125000 0 100 255
-5.126008 1.987375 0.525000 0 255 0
-5.166494 2.016500 0.425000 0 255 0
-5.246414 2.078411 0.225000 0 255 0
-5.286785 2.107912 0.225000 0 255 0
-5.263850 2.138166 0.675000 255 100 0
-5.328017 2.134531 -0.125000 0 100 255
-5.328017 2.134531 0.625000 255 100 0
-5.328017 2.134531 0.825000 255 100 0
-5.367525 2.166912 0.575000 0 255 0
-5.668818 2.381832 -0.025000 0 100 255
-0.532328 -1.302599 0.225000 0 255 0
-0.532328 -1.302599 0.775000 255 100 0
-0.532328 -1.302599 0.975000 255 100 0
-0.572720 -1.273129 0.175000 0 100 255
-0.613112 -1.243658 -0.125000 0 100 255
-0.614733 -1.244243 0.175000 0 100 255
-0.613112 -1.243658 0.525000 0 255 0
-0.655103 -1.214742 0.525000 0 255 0
-0.655103 -1.214742 0.775000 255 100 0
-0.653503 -1.214188 0.975000 255 100 0
-0.695473 -1.185242 0.525000 0 255 0
-0.734287 -1.155246 0.125000 0 100 255
-0.936245 -1.007894 -0.125000 0 100 255
-1.017029 -0.948953 0.025000 0 100 255
-1.058803 -0.919740 0.075000 0 100 255
-1.098351 -0.890065 0.075000 0 100 255
-1.259379 -0.772130 -0.125000 0 100 255
-1.442626 -0.684517 -0.125000 0 100 255
-1.461337 -0.624777 -0.025000 0 100 255
-1.946037 -0.271131 -0.125000 0 100 255
-2.147995 -0.123778 -0.025000 0 100 255
-2.228779 -0.064837 -0.125000 0 100 255
-2.430737 0.082516 -0.075000 0 100 255
-2.592698 0.200972 -0.075000 0 100 255
-4.167428 1.351071 -0.075000 0 100 255
-4.773634 1.791162 0.125000 0 100 255
-2.320591 0.064169 -0.075000 0 100 255
-2.522526 0.211555 -0.075000 0 100 255
-4.582259 1.714883 0.575000 0 255 0
-4.622234 1.746149 0.075000 0 100 255
-4.663189 1.773254 0.525000 0 255 0
-4.730641 1.821920 0.125000 0 100 255
-0.998448 -0.838662 -0.075000 0 100 255
-3.421977 0.929980 -0.125000 0 100 255
-3.462362 0.959460 -0.025000 0 100 255
-3.543133 1.018418 -0.125000 0 100 255
-3.583518 1.047898 -0.025000 0 100 255
-3.664289 1.106856 -0.125000 0 100 255
-3.704594 1.137514 -0.075000 0 100 255
-5.401525 2.372619 -0.005000 0 100 255
-4.321559 1.647660 -0.025000 0 100 255
-4.372969 1.746659 -0.013462 0 100 255
-4.493431 1.837538 0.075000 0 100 255
-4.574176 1.896533 0.425000 0 255 0
-4.667233 1.961513 0.325000 0 255 0
-4.667770 1.962029 0.525000 0 255 0
-4.816941 2.071837 0.075000 0 100 255
-4.817116 2.071305 0.375000 0 255 0
-4.856781 2.103014 0.075000 0 100 255
-4.919966 2.184705 0.475000 0 255 0
-0.748678 -0.835430 -0.010000 0 100 255
-3.535553 1.197738 -0.025000 0 100 255
-5.150926 2.377643 0.075000 0 100 255
-5.150926 2.377643 0.575000 0 255 0
-2.253767 0.324695 -0.075000 0 100 255
-2.680867 0.636212 -0.025000 0 100 255
-3.586866 1.297210 -0.025000 0 100 255
-4.474733 1.947999 0.375000 0 255 0
-3.395810 1.219722 -0.125000 0 100 255
-4.324714 1.898120 -0.016667 0 100 255
-4.432013 1.977938 0.075000 0 100 255
-4.486374 2.015613 0.325000 0 255 0
-4.526766 2.045082 0.225000 0 255 0
-4.688423 2.162700 0.075000 0 100 255
-0.498783 -0.832203 0.175000 0 100 255
-4.376205 1.996908 -0.025000 0 100 255
-4.901647 2.379107 0.425000 0 255 0
-4.901695 2.378991 0.625000 255 100 0
-5.279065 2.625253 -0.025000 0 100 255
-0.347234 -0.879747 0.125000 0 100 255
-0.347234 -0.879747 0.325000 0 255 0
-0.349231 -0.880913 0.725000 255 100 0
-3.538775 1.448329 -0.025000 0 100 255
-4.588178 2.216383 0.275000 0 255 0
-4.628550 2.245880 0.225000 0 255 0
-4.669130 2.274983 0.075000 0 100 255
-4.559211 2.255500 0.525000 0 255 0
-4.577426 2.267932 0.625000 255 100 0
-4.680367 2.343976 -0.125000 0 100 255
-0.248129 -0.828521 0.075000 0 100 255
-0.248393 -0.828681 0.275000 0 255 0
-0.248129 -0.828521 0.525000 0 255 0
-0.248393 -0.828681 0.825000 255 100 0
-4.328121 2.147758 -0.025000 0 100 255
-4.651375 2.383194 -0.025000 0 100 255
-3.046505 1.274364 -0.075000 0 100 255
-3.380252 1.581166 -0.125000 0 100 255
-4.511473 2.405403 -0.125000 0 100 255
-4.551729 2.435161 -0.125000 0 100 255
-4.279195 2.300275 -0.075000 0 100 255
-5.168799 2.946558 0.625000 255 100 0
-3.233553 1.611851 -0.075000 0 100 255
-3.321677 1.660756 -0.025000 0 100 255
-3.419230 1.781663 -0.125000 0 100 255
-3.483254 1.778623 -0.025000 0 100 255
-3.819910 2.024114 -0.125000 0 100 255
-4.291141 2.367960 -0.125000 0 100 255
-4.331423 2.397652 0.775000 255 100 0
-4.331616 2.397274 0.975000 255 100 0
-4.573964 2.574123 -0.025000 0 100 255
-4.815682 2.752147 0.625000 255 100 0
-4.855947 2.781833 -0.125000 0 100 255
-4.890405 2.819189 -0.075000 0 100 255
-5.017062 2.900638 -0.025000 0 100 255
-5.058628 2.927862 -0.025000 0 100 255
-5.179810 3.016263 -0.125000 0 100 255
-0.020090 -0.685485 0.075000 0 100 255
-0.181862 -0.567799 0.125000 0 100 255
-0.222256 -0.538331 -0.125000 0 100 255
-0.222256 -0.538331 0.225000 0 255 0
-0.275964 -0.527156 0.075000 0 100 255
-0.424227 -0.390996 0.775000 255 100 0
-0.464465 -0.361400 0.775000 255 100 0
-0.504862 -0.331938 0.525000 0 255 0
-0.505015 -0.332062 0.725000 255 100 0
-0.545409 -0.302595 -0.125000 0 100 255
-0.585658 -0.273013 0.225000 0 255 0
-0.626198 -0.243660 0.275000 0 255 0
-0.706851 -0.184626 0.125000 0 100 255
-0.747249 -0.155164 0.425000 0 255 0
-1.110927 0.109945 -0.125000 0 100 255
-1.151322 0.139412 -0.025000 0 100 255
-1.232110 0.198347 -0.125000 0 100 255
-1.272504 0.227814 -0.025000 0 100 255
-1.393612 0.316232 -0.075000 0 100 255
-1.434081 0.345682 -0.025000 0 100 255
-1.514869 0.404617 -0.125000 0 100 255
-1.555263 0.434084 -0.025000 0 100 255
-1.636052 0.493018 -0.125000 0 100 255
-1.676446 0.522485 -0.025000 0 100 255
-1.716840 0.551952 -0.025000 0 100 255
-1.797618 0.610874 -0.125000 0 100 255
-1.959246 0.728900 -0.125000 0 100 255
-2.040022 0.787851 -0.025000 0 100 255
-2.120797 0.846839 -0.125000 0 100 255
-2.565101 1.170888 -0.125000 0 100 255
-3.251839 1.671540 -0.025000 0 100 255
-0.779295 -0.070064 0.375000 0 255 0
-2.333677 1.063967 -0.015000 0 100 255
-2.535626 1.211333 -0.025000 0 100 255
-2.616405 1.270279 -0.125000 0 100 255
-2.721472 1.380826 -0.125000 0 100 255
-2.777964 1.388172 -0.025000 0 100 255
-2.899134 1.476591 -0.025000 0 100 255
-2.979913 1.535537 -0.125000 0 100 255
-3.020303 1.565010 -0.025000 0 100 255
-3.222252 1.712376 -0.025000 0 100 255
-2.950562 1.575518 -0.025000 0 100 255
-3.376392 1.885809 -0.125000 0 100 255
-4.445068 2.665991 -0.125000 0 100 255
-4.606603 2.783945 -0.125000 0 100 255
-2.072762 0.997420 -0.125000 0 100 255
-2.113149 1.026896 -0.025000 0 100 255
-2.234314 1.115313 -0.015909 0 100 255
-2.315032 1.174475 -0.125000 0 100 255
-2.436205 1.262893 -0.125000 0 100 255
-2.516993 1.321738 -0.025000 0 100 255
-2.629411 1.422041 -0.025000 0 100 255
-2.718922 1.469130 -0.125000 0 100 255
-2.880466 1.587044 -0.025000 0 100 255
-3.001624 1.675480 -0.025000 0 100 255
-3.082396 1.734436 -0.125000 0 100 255
-3.122781 1.763915 -0.025000 0 100 255
-3.203553 1.822872 -0.125000 0 100 255
-3.324711 1.911307 -0.125000 0 100 255
-3.414605 1.976501 -0.025000 0 100 255
-3.486254 2.029221 -0.125000 0 100 255
-3.526640 2.058700 -0.025000 0 100 255
-3.688183 2.176614 -0.025000 0 100 255
-3.818177 2.271850 -0.125000 0 100 255
-3.918306 2.370175 -0.025000 0 100 255
-4.010592 2.413642 -0.125000 0 100 255
-4.617387 2.854038 -0.025000 0 100 255
-4.657813 2.883448 0.675000 255 100 0
-4.698205 2.912918 0.625000 255 100 0
-4.738561 2.942451 -0.025000 0 100 255
-4.778927 2.971979 0.675000 255 100 0
-4.818959 3.002015 0.725000 255 100 0
-4.925663 3.078307 0.625000 255 100 0
-4.981051 3.119116 0.175000 0 100 255
-4.980888 3.119380 0.425000 0 255 0
-5.020270 3.150559 -0.025000 0 100 255
-5.019889 3.151081 0.425000 0 255 0
0.097279 -0.524441 -0.075000 0 100 255
0.016504 -0.465489 0.075000 0 100 255
-0.104658 -0.377060 0.275000 0 255 0
-0.266094 -0.259052 0.025000 0 100 255
-0.387264 -0.170634 0.425000 0 255 0
-0.427759 -0.141251 -0.125000 0 100 255
-0.427655 -0.141162 0.425000 0 255 0
-0.427759 -0.141251 0.675000 255 100 0
-0.468045 -0.111689 0.725000 255 100 0
-0.548825 -0.052744 0.175000 0 100 255
-0.589309 -0.023346 0.175000 0 100 255
-0.629697 0.006130 0.125000 0 100 255
-0.710472 0.065083 -0.025000 0 100 255
-0.993023 0.271535 -0.125000 0 100 255
-1.114242 0.359907 -0.125000 0 100 255
-1.154634 0.389376 -0.025000 0 100 255
-1.235366 0.448340 -0.125000 0 100 255
-1.275848 0.477781 -0.025000 0 100 255
-1.316156 0.507271 -0.025000 0 100 255
-1.396947 0.566203 -0.125000 0 100 255
-1.437342 0.595668 -0.025000 0 100 255
-1.518133 0.654599 -0.125000 0 100 255
-1.558528 0.684065 -0.025000 0 100 255
-1.639319 0.742996 -0.125000 0 100 255
-1.679770 0.772502 -0.015909 0 100 255
-1.760597 0.831489 -0.125000 0 100 255
-2.674982 1.529080 -0.075000 0 100 255
-2.770358 1.568107 -0.025000 0 100 255
-2.851147 1.627041 -0.125000 0 100 255
-2.972330 1.715441 -0.125000 0 100 255
-3.133907 1.833308 -0.025000 0 100 255
-3.255090 1.921709 -0.025000 0 100 255
-3.335879 1.980643 -0.125000 0 100 255
-3.376274 2.010109 -0.025000 0 100 255
-3.487420 2.091070 -0.125000 0 100 255
-3.760604 2.331667 -0.125000 0 100 255
-3.819510 2.336177 -0.125000 0 100 255
-4.224520 2.628986 -0.025000 0 100 255
-1.973428 1.048896 -0.125000 0 100 255
-2.729392 1.624310 -0.125000 0 100 255
-2.781294 1.637988 -0.020833 0 100 255
-2.902473 1.726394 -0.025000 0 100 255
-2.983260 1.785331 -0.125000 0 100 255
-3.023653 1.814799 -0.025000 0 100 255
-3.104440 1.873736 -0.125000 0 100 255
-3.225619 1.962141 -0.125000 0 100 255
-3.387192 2.080015 -0.025000 0 100 255
-3.528525 2.183223 -0.025000 0 100 255
-3.715966 2.320211 -0.125000 0 100 255
-3.791123 2.374700 -0.075000 0 100 255
-3.871910 2.433637 -0.025000 0 100 255
-3.992925 2.522304 -0.125000 0 100 255
-4.437217 2.846558 -0.125000 0 100 255
-1.984325 1.118589 -0.125000 0 100 255
-2.065078 1.177560 -0.075000 0 100 255
-3.841249 2.475918 -0.075000 0 100 255
-2.318342 1.424215 -0.125000 0 100 255
-2.382930 1.471434 -0.075000 0 100 255
-3.569939 2.338743 -0.125000 0 100 255
-3.691071 2.427213 0.775000 255 100 0
-3.974834 2.631813 -0.125000 0 100 255
-4.015233 2.661274 -0.125000 0 100 255
-4.297464 2.868399 -0.075000 0 100 255
-4.338340 2.897125 -0.125000 0 100 255
-4.378593 2.926770 -0.125000 0 100 255
-4.418950 2.956306 -0.020000 0 100 255
-4.499249 3.015973 -0.125000 0 100 255
-1.925432 1.199205 -0.010000 0 100 255
-2.490833 1.611954 -0.125000 0 100 255
-2.531345 1.641274 0.000000 0 100 255
-2.611707 1.700895 -0.125000 0 100 255
-2.340107 1.564042 -0.125000 0 100 255
-2.380494 1.593519 -0.125000 0 100 255
-4.561498 3.185127 -0.125000 0 100 255
-4.561498 3.185127 0.075000 0 100 255
-4.632319 3.236503 -0.125000 0 100 255
-1.745199 1.191764 -0.075000 0 100 255
-2.310840 1.604120 -0.075000 0 100 255
-2.351060 1.633841 -0.075000 0 100 255
-2.730253 1.877658 -0.125000 0 100 255
-3.419061 2.413413 -0.025000 0 100 255
-3.482392 2.458523 -0.125000 0 100 255
-4.168942 2.959676 -0.125000 0 100 255
-4.248940 3.019680 -0.025000 0 100 255
-0.746476 0.524714 -0.125000 0 100 255
-0.867642 0.613138 -0.125000 0 100 255
-1.029196 0.731037 -0.025000 0 100 255
-3.574031 2.587380 0.875000 255 100 0
-3.776009 2.734706 -0.125000 0 100 255
-4.324961 3.135337 -0.006818 0 100 255
-1.726682 1.302001 -0.075000 0 100 255
-1.767062 1.331447 -0.075000 0 100 255
-1.928746 1.449271 -0.125000 0 100 255
-2.412986 1.803423 -0.125000 0 100 255
-2.453513 1.832749 -0.006250 0 100 255
-2.494110 1.861975 0.006250 0 100 255
0.201256 -0.042595 0.775000 255 100 0
-2.383732 1.843545 -0.125000 0 100 255
-2.545623 1.961030 -0.125000 0 100 255
-2.586019 1.990495 -0.025000 0 100 255
-2.665945 2.050424 -0.125000 0 100 255
-2.707206 2.078889 -0.025000 0 100 255
-2.731176 2.130881 -0.025000 0 100 255
-2.828393 2.167284 -0.125000 0 100 255
-2.989977 2.285144 -0.025000 0 100 255
-3.030373 2.314609 -0.025000 0 100 255
-3.272605 2.491626 -0.025000 0 100 255
-3.312998 2.521096 -0.025000 0 100 255
-3.423315 2.624412 -0.025000 0 100 255
-3.474279 2.639272 0.875000 255 100 0
-3.514962 2.668441 0.825000 255 100 0
-3.957708 2.994509 -0.075000 0 100 255
-3.998078 3.024010 -0.075000 0 100 255
-4.038448 3.053510 -0.075000 0 100 255
-0.981187 0.881608 -0.125000 0 100 255
-1.021572 0.911087 -0.125000 0 100 255
-1.950539 1.589020 -0.125000 0 100 255
-4.170863 3.381243 -0.075000 0 100 255
-4.234341 3.379024 -0.125000 0 100 255
-4.477032 3.555487 -0.125000 0 100 255
-4.517427 3.584953 -0.025000 0 100 255
-4.570215 3.623543 -0.075000 0 100 255
-4.719047 3.732661 -0.075000 0 100 255
0.377292 0.076136 0.075000 0 100 255
0.359448 0.089326 0.025000 0 100 255
0.366755 0.083997 0.375000 0 255 0
0.278663 0.148266 0.125000 0 100 255
0.238328 0.177933 0.125000 0 100 255
0.117141 0.266329 0.125000 0 100 255
0.076702 0.295615 0.075000 0 100 255
0.036350 0.325259 0.125000 0 100 255
-0.084837 0.413654 0.475000 0 255 0
-0.125233 0.443119 0.075000 0 100 255
-0.165651 0.472434 0.425000 0 255 0
-0.286847 0.560830 0.325000 0 255 0
-0.327239 0.590300 -0.125000 0 100 255
-0.327333 0.589970 0.675000 255 100 0
-0.367716 0.619452 -0.125000 0 100 255
-0.448378 0.678789 -0.025000 0 100 255
-0.569587 0.767104 -0.125000 0 100 255
-1.983462 1.798468 -0.125000 0 100 255
-2.023057 1.828480 -0.075000 0 100 255
-2.064076 1.857521 -0.075000 0 100 255
-2.104305 1.887150 -0.025000 0 100 255
-2.185367 1.945841 -0.125000 0 100 255
-3.830998 3.168425 -0.025000 0 100 255
-3.977208 3.222479 -0.025000 0 100 255
-4.083884 3.330785 -0.025000 0 100 255
-4.227348 3.435755 -0.025000 0 100 255
-4.218810 3.485005 -0.025000 0 100 255
-4.285974 3.478007 -0.075000 0 100 255
-4.325572 3.508374 -0.125000 0 100 255
-4.366765 3.536936 -0.075000 0 100 255
-4.487679 3.625629 -0.075000 0 100 255
-4.527507 3.655759 -0.075000 0 100 255
-4.567894 3.685236 -0.075000 0 100 255
-4.622118 3.724114 -0.025000 0 100 255
-4.689054 3.773667 -0.075000 0 100 255
0.469726 0.070825 -0.075000 0 100 255
0.469726 0.070825 0.175000 0 100 255
0.388790 0.129426 -0.125000 0 100 255
0.388790 0.129426 0.325000 0 255 0
0.227368 0.247638 0.025000 0 100 255
0.186975 0.277107 0.075000 0 100 255
-0.070594 0.464839 0.425000 0 255 0
-0.136241 0.512628 0.425000 0 255 0
-0.176561 0.542326 0.325000 0 255 0
-0.176561 0.542326 0.525000 0 255 0
-0.217073 0.571633 0.325000 0 255 0
-0.216956 0.571897 0.475000 0 255 0
-0.217073 0.571633 0.725000 255 100 0
-0.272206 0.612283 0.325000 0 255 0
-0.275805 0.614531 0.525000 0 255 0
-0.270812 0.611162 0.675000 255 100 0
-0.282677 0.619532 -0.125000 0 100 255
-0.378588 0.689570 -0.075000 0 100 255
-0.580476 0.837013 0.075000 0 100 255
-0.620932 0.866310 -0.025000 0 100 255
-0.621021 0.866022 0.175000 0 100 255
-0.903650 1.072703 0.008333 0 100 255
-1.186339 1.278988 -0.025000 0 100 255
-1.307493 1.367428 -0.125000 0 100 255
-1.332759 1.385863 -0.025000 0 100 255
-1.469153 1.485334 -0.025000 0 100 255
-1.590401 1.573719 -0.025000 0 100 255
-1.823718 1.762753 -0.125000 0 100 255
-1.872955 1.780093 -0.125000 0 100 255
-1.913278 1.809612 0.012500 0 100 255
-1.953767 1.839023 0.015000 0 100 255
-2.074819 1.927523 -0.125000 0 100 255
-2.115375 1.956894 -0.010000 0 100 255
-2.196245 2.015779 -0.125000 0 100 255
-2.398166 2.163125 -0.125000 0 100 255
-2.438558 2.192595 -0.125000 0 100 255
-3.367246 2.870760 0.875000 255 100 0
-4.134524 3.430907 -0.075000 0 100 255
-4.174549 3.460795 -0.125000 0 100 255
-4.336454 3.578299 -0.125000 0 100 255
-2.812910 2.527787 -0.075000 0 100 255
-3.014599 2.675367 0.025000 0 100 255
-4.064835 3.441626 -0.125000 0 100 255
-4.112700 3.476311 -0.125000 0 100 255
-4.347551 3.647954 -0.075000 0 100 255
-4.387939 3.677428 -0.125000 0 100 255
-4.589880 3.824805 -0.025000 0 100 255
0.568889 0.121821 -0.075000 0 100 255
0.568889 0.121821 0.275000 0 255 0
0.528574 0.151454 0.125000 0 100 255
0.447708 0.210215 -0.075000 0 100 255
0.447708 0.210215 0.175000 0 100 255
0.286156 0.328117 0.075000 0 100 255
0.245768 0.357593 0.075000 0 100 255
0.164992 0.416544 0.275000 0 255 0
0.084215 0.475495 0.175000 0 100 255
-0.077322 0.593426 -0.125000 0 100 255
-0.077322 0.593426 0.325000 0 255 0
-0.117725 0.622873 0.275000 0 255 0
-0.165396 0.657929 -0.125000 0 100 255
-0.238811 0.711580 0.075000 0 100 255
-0.319580 0.770565 0.325000 0 255 0
-0.400382 0.829453 -0.075000 0 100 255
-0.481207 0.888138 -0.019444 0 100 255
-0.521612 0.917516 -0.017857 0 100 255
-0.576729 0.926853 -0.025000 0 100 255
-2.581538 2.420779 0.325000 0 255 0
-2.864034 2.627248 0.075000 0 100 255
-2.863066 2.628095 0.475000 0 255 0
-2.863066 2.628095 0.625000 255 100 0
-2.931744 2.676043 0.375000 0 255 0
-3.065511 2.775121 -0.125000 0 100 255
-4.162129 3.574828 -0.125000 0 100 255
-4.237759 3.628894 -0.025000 0 100 255
-4.318546 3.687830 -0.075000 0 100 255
0.476775 0.249448 -0.075000 0 100 255
0.476775 0.249448 0.225000 0 255 0
0.396407 0.309555 -0.075000 0 100 255
0.396407 0.309555 0.225000 0 255 0
0.113818 0.516274 0.125000 0 100 255
-0.088158 0.663603 0.275000 0 255 0
-0.128553 0.693069 0.075000 0 100 255
-0.433437 0.868882 -0.125000 0 100 255
-2.713619 2.579053 0.475000 0 255 0
-2.788020 2.632786 0.675000 255 100 0
-2.835252 2.667050 0.475000 0 255 0
-2.874944 2.697112 0.575000 0 255 0
-2.914306 2.727465 0.325000 0 255 0
-2.955837 2.756018 0.175000 0 100 255
-2.996401 2.785350 -0.125000 0 100 255
-3.036489 2.815089 -0.075000 0 100 255
-3.117565 2.873745 -0.025000 0 100 255
-3.238740 2.962157 -0.025000 0 100 255
-3.279132 2.991628 -0.025000 0 100 255
-3.481107 3.138956 -0.075000 0 100 255
-3.723326 3.315900 -0.025000 0 100 255
-3.885029 3.433634 -0.025000 0 100 255
-4.288503 3.728817 -0.025000 0 100 255
-4.326228 3.762037 -0.075000 0 100 255
-4.369681 3.787352 -0.125000 0 100 255
0.587642 0.232539 0.075000 0 100 255
0.506899 0.291538 -0.125000 0 100 255
0.466503 0.321003 0.225000 0 255 0
0.425599 0.349219 0.225000 0 255 0
0.385667 0.379870 0.012500 0 100 255
0.385711 0.379932 0.225000 0 255 0
0.264483 0.468268 0.025000 0 100 255
0.224127 0.497791 0.075000 0 100 255
0.183693 0.527200 0.075000 0 100 255
-0.018282 0.674530 0.175000 0 100 255
-0.260639 0.851423 0.016667 0 100 255
-0.301074 0.880719 0.375000 0 255 0
-0.337258 0.915855 -0.075000 0 100 255
-0.381838 0.939672 -0.125000 0 100 255
-0.624193 1.116357 -0.125000 0 100 255
-0.684258 1.119153 0.075000 0 100 255
-0.826071 1.263577 -0.075000 0 100 255
-0.906837 1.322542 -0.025000 0 100 255
-0.987603 1.381508 -0.025000 0 100 255
-1.391468 1.676350 -0.025000 0 100 255
-1.552925 1.794307 -0.075000 0 100 255
-2.280122 2.324821 -0.125000 0 100 255
-2.724689 2.648774 0.375000 0 255 0
-2.724773 2.648741 0.525000 0 255 0
-4.339944 3.828029 -0.025000 0 100 255
-4.380873 3.856941 -0.075000 0 100 255
-4.420230 3.887498 -0.025000 0 100 255
-4.539976 3.977344 -0.075000 0 100 255
0.657337 0.243036 -0.016667 0 100 255
0.657337 0.243036 0.175000 0 100 255
0.616515 0.271187 0.175000 0 100 255
0.576560 0.301985 -0.075000 0 100 255
0.535775 0.330188 -0.075000 0 100 255
0.463522 0.384577 0.075000 0 100 255
0.414858 0.419515 0.275000 0 255 0
0.374557 0.449115 0.010714 0 100 255
0.277733 0.520235 0.375000 0 255 0
0.132176 0.625889 -0.075000 0 100 255
0.061502 0.677478 -0.125000 0 100 255
-0.012042 0.731274 0.075000 0 100 255
-0.069741 0.773300 0.075000 0 100 255
-0.110048 0.803054 0.325000 0 255 0
-0.231201 0.891736 0.020000 0 100 255
-0.271588 0.921151 -0.005769 0 100 255
-0.352392 0.980009 -0.075000 0 100 255
-0.554353 1.127358 -0.006250 0 100 255
-0.635140 1.186291 -0.125000 0 100 255
-0.958302 1.422083 -0.125000 0 100 255
-1.079483 1.510487 -0.025000 0 100 255
-1.241050 1.628374 -0.025000 0 100 255
-1.362231 1.716776 -0.125000 0 100 255
-1.408557 1.738165 -0.025000 0 100 255
-1.523893 1.834643 -0.125000 0 100 255
-1.644706 1.923071 -0.125000 0 100 255
-1.725754 1.981993 -0.025000 0 100 255
-2.280241 2.386505 -0.025000 0 100 255
-2.532775 2.571948 0.325000 0 255 0
-2.614548 2.630188 0.525000 0 255 0
-2.613855 2.630679 0.675000 255 100 0
-2.735266 2.718947 0.525000 0 255 0
-2.735432 2.718825 0.675000 255 100 0
-2.775590 2.748456 0.625000 255 100 0
-2.816423 2.777583 0.425000 0 255 0
-2.897000 2.836695 0.275000 0 255 0
-2.937423 2.866141 -0.001667 0 100 255
-2.978389 2.895129 0.075000 0 100 255
-3.017464 2.925686 -0.025000 0 100 255
-3.139482 3.013417 -0.025000 0 100 255
-3.381246 3.190723 -0.025000 0 100 255
-3.461011 3.250578 -0.075000 0 100 255
-3.542612 3.308806 -0.125000 0 100 255
-3.825662 3.514831 -0.125000 0 100 255
-3.946822 3.603262 -0.075000 0 100 255
-3.987553 3.632417 -0.125000 0 100 255
-4.027596 3.662216 -0.125000 0 100 255
-4.116903 3.726625 -0.025000 0 100 255
-4.189506 3.779777 -0.125000 0 100 255
-4.330598 3.883201 -0.025000 0 100 255
0.525261 0.401319 0.075000 0 100 255
-0.440402 1.113698 0.025000 0 100 255
-0.633421 1.273516 0.075000 0 100 255
-0.686397 1.285553 0.012500 0 100 255
-0.726781 1.315109 0.025000 0 100 255
-0.807679 1.374109 -0.125000 0 100 255
-0.847675 1.403065 -0.125000 0 100 255
-0.888485 1.433056 -0.025000 0 100 255
-1.211716 1.668774 -0.025000 0 100 255
-1.898366 2.169674 -0.005000 0 100 255
-1.979158 2.228602 -0.125000 0 100 255
-2.423425 2.552754 -0.125000 0 100 255
-3.201374 3.182889 -0.025000 0 100 255
-0.263978 1.101209 -0.125000 0 100 255
-1.596640 2.073753 -0.125000 0 100 255
-2.282991 2.575000 0.125000 0 100 255
-2.323426 2.604455 0.075000 0 100 255
-2.408783 2.666039 0.075000 0 100 255
-2.428257 2.679688 0.375000 0 255 0
-2.525083 2.752036 0.525000 0 255 0
-2.565460 2.781525 0.175000 0 100 255
-2.606609 2.810508 0.625000 255 100 0
-2.687390 2.869452 0.125000 0 100 255
-2.727824 2.898923 -0.015000 0 100 255
-2.888481 3.017443 -0.075000 0 100 255
-3.131786 3.193583 -0.125000 0 100 255
-3.575938 3.517899 -0.025000 0 100 255
-3.656151 3.577338 -0.075000 0 100 255
-3.736413 3.636727 -0.075000 0 100 255
-3.924149 3.770579 -0.125000 0 100 255
-4.020746 3.841614 -0.075000 0 100 255
-4.058645 3.873322 -0.075000 0 100 255
-0.274823 1.170765 0.325000 0 255 0
-1.688426 2.202547 -0.125000 0 100 255
-2.415607 2.733003 0.325000 0 255 0
-2.537065 2.821244 -0.075000 0 100 255
-2.537081 2.821233 0.125000 0 100 255
-2.576958 2.851000 -0.075000 0 100 255
-4.031775 3.911416 -0.025000 0 100 255
0.522053 0.651707 0.125000 0 100 255
-1.327826 2.018140 -0.125000 0 100 255
-2.386011 2.773450 0.475000 0 255 0
-2.425671 2.803350 0.525000 0 255 0
-3.840115 3.834402 -0.125000 0 100 255
-0.709731 1.612129 0.075000 0 100 255
-3.245645 3.461865 -0.025000 0 100 255
-3.326436 3.520795 -0.025000 0 100 255
-3.609205 3.727051 -0.025000 0 100 255
-3.729361 3.816293 -0.075000 0 100 255
-3.770009 3.845551 -0.075000 0 100 255
-3.810396 3.875027 -0.075000 0 100 255
-4.013317 4.021573 -0.025000 0 100 255
0.863618 0.525579 0.075000 0 100 255
0.863618 0.525579 0.325000 0 255 0
0.823395 0.555872 0.225000 0 255 0
0.823395 0.555872 0.625000 255 100 0
0.782997 0.585335 0.225000 0 255 0
0.661685 0.672967 0.125000 0 100 255
0.621407 0.703186 0.175000 0 100 255
0.581010 0.732648 0.025000 0 100 255
0.516370 0.779783 0.075000 0 100 255
0.459752 0.820354 0.275000 0 255 0
0.419317 0.849193 0.325000 0 255 0
0.379023 0.879962 0.075000 0 100 255
0.379023 0.879962 0.275000 0 255 0
0.338625 0.909424 0.025000 0 100 255
0.338625 0.909424 0.275000 0 255 0
0.298228 0.938887 0.125000 0 100 255
0.177046 1.026697 0.025000 0 100 255
0.096241 1.086200 0.175000 0 100 255
-0.024886 1.174085 0.725000 255 100 0
-0.065273 1.203562 0.075000 0 100 255
-0.065349 1.204051 0.725000 255 100 0
-0.105660 1.233039 0.125000 0 100 255
-0.146144 1.262976 0.025000 0 100 255
-0.186433 1.291995 0.325000 0 255 0
-0.226819 1.321472 0.125000 0 100 255
-0.267302 1.351264 -0.002500 0 100 255
-0.267360 1.351450 0.075000 0 100 255
-0.267360 1.351450 0.325000 0 255 0
-0.307344 1.379783 -0.075000 0 100 255
-0.307559 1.380359 0.675000 255 100 0
-0.388472 1.439720 0.675000 255 100 0
-1.075026 1.940528 -0.125000 0 100 255
-1.196337 2.028978 0.018750 0 100 255
-1.317323 2.117372 0.025000 0 100 255
-2.771759 3.178177 -0.025000 0 100 255
-2.892942 3.266578 -0.025000 0 100 255
-3.014125 3.354978 -0.025000 0 100 255
-3.176043 3.472647 -0.025000 0 100 255
-3.458027 3.679430 -0.025000 0 100 255
-3.780517 3.915752 -0.125000 0 100 255
-1.651523 2.423019 0.725000 255 100 0
-3.105628 3.483929 -0.025000 0 100 255
-3.437783 3.790896 -0.075000 0 100 255
-3.642035 3.936604 -0.075000 0 100 255
-3.682432 3.966069 -0.075000 0 100 255
0.951937 0.646012 0.075000 0 100 255
0.911779 0.676910 0.175000 0 100 255
0.871384 0.706375 0.575000 0 255 0
0.830804 0.734481 0.625000 255 100 0
0.782484 0.770938 0.625000 255 100 0
0.709671 0.822950 0.675000 255 100 0
0.628916 0.881930 0.075000 0 100 255
0.588538 0.911419 0.025000 0 100 255
0.588538 0.911419 0.375000 0 255 0
0.548222 0.942101 0.275000 0 255 0
0.507827 0.971567 0.625000 255 100 0
0.507827 0.971567 0.925000 255 100 0
0.467447 0.999390 0.125000 0 100 255
0.467447 0.999390 0.725000 255 100 0
0.427036 1.030498 0.275000 0 255 0
0.427027 1.029378 0.725000 255 100 0
0.386650 1.058868 0.125000 0 100 255
0.386641 1.059964 0.275000 0 255 0
0.346272 1.088358 0.175000 0 100 255
0.346246 1.089429 0.775000 255 100 0
0.305851 1.118895 0.125000 0 100 255
0.305894 1.117847 0.375000 0 255 0
0.265517 1.147337 0.675000 255 100 0
0.184761 1.206317 0.625000 255 100 0
0.144270 1.236758 0.825000 255 100 0
0.104006 1.265296 0.125000 0 100 255
-0.017327 1.354500 -0.125000 0 100 255
-0.057720 1.383969 0.025000 0 100 255
-0.259393 1.530704 -0.075000 0 100 255
-0.259685 1.531313 0.325000 0 255 0
-0.323244 1.577790 0.325000 0 255 0
-0.421304 1.649257 -0.125000 0 100 255
-0.623441 1.796762 -0.125000 0 100 255
-1.349203 2.326899 0.725000 255 100 0
-1.471415 2.415379 0.825000 255 100 0
-1.511982 2.444845 0.775000 255 100 0
-2.116233 2.887403 -0.075000 0 100 255
-3.572121 3.947591 -0.075000 0 100 255
-3.733703 4.065453 -0.125000 0 100 255
-4.178694 4.389057 0.075000 0 100 255
0.981667 0.688292 0.275000 0 255 0
0.684092 0.874047 0.275000 0 255 0
0.618059 0.953414 0.125000 0 100 255
0.577659 0.982872 0.125000 0 100 255
0.456456 1.071246 0.125000 0 100 255
0.416207 1.098760 0.625000 255 100 0
0.375654 1.130162 0.675000 255 100 0
0.335254 1.159620 0.275000 0 255 0
0.335254 1.159620 0.775000 255 100 0
0.254452 1.218536 0.675000 255 100 0
0.173650 1.277452 0.625000 255 100 0
0.092973 1.336035 0.675000 255 100 0
-0.068754 1.454200 0.625000 255 100 0
-0.189930 1.542535 0.725000 255 100 0
-0.230088 1.571535 0.675000 255 100 0
-0.270744 1.601471 0.075000 0 100 255
-1.401518 2.426304 0.000000 0 100 255
-1.482586 2.485220 0.825000 255 100 0
-1.603525 2.573652 0.009615 0 100 255
-2.733798 3.399189 -0.075000 0 100 255
-3.582303 4.017985 -0.075000 0 100 255
-3.623327 4.047015 -0.125000 0 100 255
-3.663484 4.076637 -0.075000 0 100 255
-3.702267 4.107307 -0.075000 0 100 255
-0.200774 1.612217 0.625000 255 100 0
-2.220271 3.085587 -0.025000 0 100 255
-2.462375 3.262514 -0.075000 0 100 255
-2.624182 3.380299 -0.075000 0 100 255
-2.664851 3.409626 -0.125000 0 100 255
-2.745475 3.468646 -0.125000 0 100 255
-2.785480 3.498318 -0.025000 0 100 255
-2.866654 3.557053 -0.125000 0 100 255
-2.906456 3.586852 -0.025000 0 100 255
-2.987803 3.645492 -0.125000 0 100 255
-3.027963 3.675096 -0.025000 0 100 255
-3.176645 3.782800 -0.025000 0 100 255
-3.269305 3.852594 -0.125000 0 100 255
-3.512640 4.028773 -0.025000 0 100 255
-3.571595 4.072422 -0.025000 0 100 255
-3.673758 4.146976 -0.025000 0 100 255
-3.776145 4.220729 -0.125000 0 100 255
0.515469 1.151003 -0.075000 0 100 255
0.519148 1.156053 0.275000 0 255 0
-0.574412 1.946506 0.125000 0 100 255
-0.615282 1.976438 -0.075000 0 100 255
-0.979018 2.241832 0.025000 0 100 255
-1.019409 2.271304 0.025000 0 100 255
-1.301073 2.477509 -0.125000 0 100 255
-3.628227 4.173855 -0.025000 0 100 255
-3.965493 4.424523 0.025000 0 100 255
-4.019882 4.460631 0.625000 255 100 0
-4.088892 4.511373 0.125000 0 100 255
-4.129991 4.540276 0.325000 0 255 0
-4.129991 4.540276 0.625000 255 100 0
1.070000 0.808977 -0.075000 0 100 255
1.070000 0.808977 0.175000 0 100 255
1.029605 0.838443 0.125000 0 100 255
1.029588 0.838286 0.325000 0 255 0
0.908409 0.926693 0.275000 0 255 0
0.908409 0.926693 0.775000 255 100 0
0.827624 0.985631 0.425000 0 255 0
0.787231 1.015100 0.125000 0 100 255
0.746842 1.044708 0.275000 0 255 0
0.625659 1.132975 0.075000 0 100 255
0.625658 1.133107 0.425000 0 255 0
0.585263 1.162573 0.325000 0 255 0
0.528513 1.169406 0.225000 0 255 0
0.504481 1.221382 0.125000 0 100 255
0.504481 1.221382 0.325000 0 255 0
0.464338 1.249370 0.175000 0 100 255
0.423684 1.280438 0.125000 0 100 255
0.342909 1.339258 -0.125000 0 100 255
0.342909 1.339258 0.125000 0 100 255
0.060132 1.545636 0.075000 0 100 255
-0.060774 1.633408 0.075000 0 100 255
-0.182286 1.722509 -0.125000 0 100 255
-0.262322 1.780374 0.125000 0 100 255
-0.384272 1.869881 -0.016667 0 100 255
-0.424569 1.899211 -0.004167 0 100 255
-0.464965 1.928660 -0.025000 0 100 255
-0.626347 2.046381 0.125000 0 100 255
-0.273754 1.850991 0.005769 0 100 255
-1.525806 2.764702 0.025000 0 100 255
-1.687359 2.882602 0.025000 0 100 255
-2.172362 3.236187 -0.025000 0 100 255
-2.293022 3.324788 -0.125000 0 100 255
-2.373962 3.383677 -0.025000 0 100 255
-2.575904 3.531052 -0.025000 0 100 255
-2.737458 3.648952 -0.025000 0 100 255
-2.980114 3.825617 -0.125000 0 100 255
-3.060379 3.884856 -0.025000 0 100 255
-3.302384 4.061914 -0.125000 0 100 255
-3.322253 4.074772 -0.025000 0 100 255
-3.422352 4.151080 -0.025000 0 100 255
-3.462639 4.180631 -0.075000 0 100 255
-3.585970 4.267691 0.075000 0 100 255
-3.666754 4.326632 -0.125000 0 100 255
-3.665882 4.327223 0.075000 0 100 255
0.563590 1.301434 0.075000 0 100 255
-0.607943 2.156760 0.125000 0 100 255
-0.641018 2.180900 0.075000 0 100 255
-0.728773 2.244981 -0.075000 0 100 255
-0.930693 2.392385 -0.125000 0 100 255
-0.930693 2.392385 0.125000 0 100 255
-1.779088 3.011431 -0.075000 0 100 255
-2.342932 3.424625 -0.025000 0 100 255
-3.072200 3.954214 -0.075000 0 100 255
-3.473293 4.250631 -0.125000 0 100 255
-3.918334 4.574492 0.875000 255 100 0
-4.026674 4.681794 0.275000 0 255 0
-4.026674 4.681794 0.575000 0 255 0
1.037279 1.016478 0.075000 0 100 255
0.875799 1.134479 -0.075000 0 100 255
0.875799 1.134479 0.275000 0 255 0
0.835429 1.163979 0.075000 0 100 255
0.754689 1.222979 0.075000 0 100 255
0.673949 1.281980 -0.075000 0 100 255
0.673949 1.281980 0.275000 0 255 0
0.673949 1.281980 0.475000 0 255 0
0.633579 1.311480 0.475000 0 255 0
0.569366 1.310250 0.125000 0 100 255
0.568372 1.308606 0.275000 0 255 0
0.593209 1.340980 0.475000 0 255 0
0.512469 1.399981 0.325000 0 255 0
0.512469 1.399981 0.925000 255 100 0
0.472098 1.429481 0.125000 0 100 255
0.472098 1.429481 0.925000 255 100 0
0.431728 1.458981 0.125000 0 100 255
0.366262 1.456727 0.125000 0 100 255
0.350988 1.517981 0.325000 0 255 0
0.310618 1.547482 -0.075000 0 100 255
0.229878 1.606482 -0.075000 0 100 255
0.229878 1.606482 0.125000 0 100 255
0.189508 1.635982 -0.125000 0 100 255
0.108032 1.696516 0.075000 0 100 255
-0.052712 1.812984 0.125000 0 100 255
-0.133452 1.871984 -0.075000 0 100 255
-0.173822 1.901484 0.025000 0 100 255
-0.254562 1.960485 -0.075000 0 100 255
-0.336463 2.020698 -0.125000 0 100 255
-0.376128 2.049462 -0.125000 0 100 255
-0.417058 2.079415 0.075000 0 100 255
-0.831822 2.443855 -0.125000 0 100 255
-0.912537 2.502775 -0.125000 0 100 255
-3.497482 4.388914 0.275000 0 255 0
-0.277160 2.101072 -0.125000 0 100 255
-2.736022 3.895081 -0.015625 0 100 255
-0.973461 2.671599 0.175000 0 100 255
-1.015478 2.701486 0.475000 0 255 0
-3.921357 4.824593 -0.125000 0 100 255
-3.921357 4.824593 0.175000 0 100 255
-3.921357 4.824593 0.475000 0 255 0
-3.921357 4.824593 0.775000 255 100 0
1.175301 1.165111 0.625000 255 100 0
1.114792 1.208005 0.625000 255 100 0
0.953286 1.325972 0.625000 255 100 0
0.912910 1.355464 0.575000 0 255 0
0.751405 1.473430 0.075000 0 100 255
0.711029 1.502922 0.425000 0 255 0
0.670653 1.532413 0.425000 0 255 0
0.539483 1.628157 0.775000 255 100 0
0.539178 1.629285 0.175000 0 100 255
-0.136873 2.122246 0.175000 0 100 255
-0.177857 2.152413 0.275000 0 255 0
-3.530581 4.598294 0.925000 255 100 0
-3.853148 4.834401 0.875000 255 100 0
-3.853148 4.834401 0.975000 255 100 0
-2.670479 4.032652 0.022826 0 100 255
-3.346570 -3.210219 0.725000 255 100 0
-5.056118 -1.900592 -0.075000 0 100 255
-5.056118 -1.900592 0.075000 0 100 255
-5.056118 -1.900592 0.225000 0 255 0
-5.056118 -1.900592 0.375000 0 255 0
-5.056118 -1.900592 0.525000 0 255 0
-5.834532 -1.269768 0.125000 0 100 255
-5.834532 -1.269768 0.375000 0 255 0
-5.834532 -1.269768 0.525000 0 255 0
-5.913377 -1.214664 0.075000 0 100 255
-6.035171 -1.124962 0.225000 0 255 0
-6.034942 -1.125484 0.675000 255 100 0
-6.075550 -1.095567 0.325000 0 255 0
-6.115953 -1.066019 0.375000 0 255 0
-6.175231 -1.023190 -0.075000 0 100 255
-6.196762 -1.006995 0.575000 0 255 0
-6.237033 -0.977786 0.575000 0 255 0
-6.278074 -0.946777 0.525000 0 255 0
-6.318286 -0.917675 -0.075000 0 100 255
-6.519887 -0.771220 -0.125000 0 100 255
-6.722155 -0.622769 -0.125000 0 100 255
-6.802924 -0.563809 -0.125000 0 100 255
-7.085356 -0.358613 -0.125000 0 100 255
-2.428923 -3.731669 0.975000 255 100 0
-2.452277 -3.677789 0.075000 0 100 255
-2.452277 -3.677789 0.525000 0 255 0
-2.532127 -3.619074 0.025000 0 100 255
-2.533047 -3.618829 0.825000 255 100 0
-2.573432 -3.589349 -0.075000 0 100 255
-2.573432 -3.589349 0.175000 0 100 255
-2.573432 -3.589349 0.475000 0 255 0
-2.613816 -3.559869 0.625000 255 100 0
-2.681946 -3.509674 0.525000 0 255 0
-2.734081 -3.471714 0.325000 0 255 0
-2.734971 -3.471429 0.575000 0 255 0
-2.774472 -3.442242 0.225000 0 255 0
-2.775356 -3.441949 0.475000 0 255 0
-2.814862 -3.412770 -0.125000 0 100 255
-2.814862 -3.412770 0.275000 0 255 0
-2.815740 -3.412469 0.525000 0 255 0
-2.879836 -3.365491 0.225000 0 255 0
-2.936894 -3.324029 0.075000 0 100 255
-3.219587 -3.117668 0.775000 255 100 0
-3.276910 -3.075465 0.075000 0 100 255
-3.268854 -3.081411 0.675000 255 100 0
-3.301846 -3.058064 0.225000 0 255 0
-3.340742 -3.029228 0.425000 0 255 0
-3.382594 -2.999074 0.275000 0 255 0
-3.420723 -2.970692 0.025000 0 100 255
-3.420723 -2.970692 0.875000 255 100 0
-3.461113 -2.941220 0.025000 0 100 255
-3.542665 -2.881828 0.225000 0 255 0
-3.541895 -2.882277 0.975000 255 100 0
-3.582286 -2.852805 0.075000 0 100 255
-3.582286 -2.852805 0.325000 0 255 0
-3.623435 -2.822868 0.775000 255 100 0
-3.663067 -2.793861 0.125000 0 100 255
-3.663067 -2.793861 0.425000 0 255 0
-3.663819 -2.793388 0.675000 255 100 0
-3.663819 -2.793388 0.925000 255 100 0
-3.703457 -2.764389 0.625000 255 100 0
-3.704204 -2.763908 0.875000 255 100 0
-3.744589 -2.734428 0.475000 0 255 0
-3.744589 -2.734428 0.725000 255 100 0
-3.744589 -2.734428 0.975000 255 100 0
-3.784974 -2.704947 -0.125000 0 100 255
-3.784239 -2.705445 0.375000 0 255 0
-3.784239 -2.705445 0.625000 255 100 0
-3.784974 -2.704947 0.875000 255 100 0
-3.825358 -2.675467 0.125000 0 100 255
-3.825358 -2.675467 0.675000 255 100 0
-3.865020 -2.646501 0.025000 0 100 255
-3.905411 -2.617029 0.075000 0 100 255
-3.906128 -2.616507 0.475000 0 255 0
-3.906128 -2.616507 0.675000 255 100 0
-3.945801 -2.587558 0.075000 0 100 255
-3.946513 -2.587028 0.375000 0 255 0
-4.027282 -2.528067 0.125000 0 100 255
-4.026583 -2.528614 0.925000 255 100 0
-4.067667 -2.498587 0.775000 255 100 0
-4.067667 -2.498587 0.925000 255 100 0
-4.108051 -2.469107 0.025000 0 100 255
-4.107364 -2.469670 0.975000 255 100 0
-4.133681 -2.422376 0.025000 0 100 255
-4.148436 -2.439627 0.275000 0 255 0
